ply
format ascii 1.0
element vertex 1000
property float x
property float y
property float z
property float signed_distance
end_header
1423.36 589.535 302.371 -0.465466
1904.68 621.522 259.901 -2.31649
930.965 -364.754 -330.927 -0.656819
1065.88 -1114.42 -559.562 -0.62513
1279.65 -116.453 -130.322 0.504248
1269.47 -1172.9 -518.761 0.278572
1439.8 -605.379 -258.848 -0.119731
652.583 -225.359 73.0205 -0.583316
790.717 -199.644 -263.182 -0.193656
1159.04 -47.2092 -103.202 2.55374
1050.93 280.997 324.028 2.42812
1532.42 653.669 317.964 0.522355
874.996 -248.772 -276.771 0.998598
1535.83 -1320.24 -479.562 0.543645
1489.96 52.4178 82.3375 -0.00799907
1220.21 570.112 350.723 -0.631997
1349.3 -58.6055 23.2699 -0.000751674
1439.53 -613.369 -327.817 1.14312
1792.47 262.086 78.0079 1.06838
978.515 -638.656 -450.641 1.18957
1682.89 -448.214 -228.046 -1.41055
906.123 -763.571 -519.862 0.873852
1208.39 -965.429 -448.235 0.615733
743.424 -508.63 -398.867 0.848306
1185.69 683.011 466.31 1.29875
1825.28 -360.174 -182.862 -0.0757285
1926.25 -566.508 -194.818 -1.07452
1368.73 231.155 204.757 1.47339
1400.83 -254.686 -92.0104 -1.22662
1621.25 -1006.41 -373.361 2.35236
1454.33 -399.867 -243.885 1.3769
1662.31 751.878 356.297 0.735751
660.577 -407.367 -372.113 -2.19725
690.919 229.979 -108.058 -5.00761
1759.42 -724.496 -262.397 0.860428
1710.32 -1126.36 -404.284 -2.2403
1670.27 228.185 64.5785 0.949699
817.981 308.933 275.314 0.543685
1723.72 702.698 381.106 -0.346362
676.771 66.8212 -255.506 -2.771
1898.09 336.96 112.032 0.451996
738.738 275.26 288.998 0.869717
1240.12 136.063 24.6891 -0.655832
1328.56 -415.377 -270.446 0.614736
1165.51 -138.129 -27.8705 0.955256
1688.43 342.365 122.761 0.305471
1367.8 28.7934 -39.7307 -1.23953
1842.17 -603.253 -212.505 -0.518979
799.157 280.726 243.962 -0.582818
1224.84 -894.465 -463.117 -0.961959
1874.66 -711.016 -296.916 0.838006
809.934 -76.7549 26.3922 2.17229
919.609 -378.169 -343.644 1.1564
884.442 91.5814 -10.6663 0.505167
1706.6 327.289 114.373 0.0285244
1704.1 266.736 175.532 -0.128069
671.95 -584.993 -536.94 0.810637
1326.02 -1114.65 -494.302 1.08218
1254.75 286.657 128.229 -0.140705
1730.34 40.057 -23.1493 -1.32979
1196.05 94.1353 -3.61637 -0.748542
992.154 -539.52 -322.76 1.71408
1497.72 -618.893 -317.897 0.109076
1424.51 700.66 373.735 1.5207
1172.49 570.514 471.308 0.283659
1466 -761.802 -316.645 0.708736
1672.53 -792.435 -345.703 1.41682
858.065 410.478 478.731 1.92097
1864.83 288.87 88.3353 1.89757
995.517 351.199 405.682 -0.369484
758.141 -449.994 -351.791 -0.956515
786.531 31.7951 -70.5476 -1.55387
985.825 234.872 302.796 -1.04569
1774.67 -834.814 -342.779 -0.472518
1419.88 -217.698 -167.658 1.41706
1043.22 -985.398 -538.285 -0.0779784
861.736 301.304 440.494 -0.369194
1509.92 776.85 407.299 -0.873458
1687.66 -878.866 -326.213 -0.90313
826.832 158.632 293.684 -0.110842
1084.91 525.914 376.073 0.578685
1501.13 690.599 348.665 0.13996
653.915 31.2839 238.901 -1.91481
1699.58 365.113 133.463 0.663264
685.248 264.53 16.0288 -0.494375
1673.57 457.45 185.94 -0.837488
1102 328.525 338.644 -1.08528
899.152 -133.281 -32.1002 1.46354
707.221 197.842 -171.484 -2.53404
1563.87 -331.39 -118.172 0.590336
1542.27 -526.655 -210.168 -0.189653
1367.57 -727.126 -380.747 0.907291
688.402 -554.188 -514.705 0.0781719
702.855 34.1687 256.897 -0.507112
1410.18 -131.553 -19.0945 1.40636
1332.31 -131.088 -131.279 -0.815872
1861.25 -263.347 -144.137 -0.0525779
1706.15 -306.418 -175.124 1.62821
1330.34 -123.092 -128.448 0.271873
887.679 -136.927 -37.4982 0.56256
1309 -730.247 -395.368 1.37836
1178 -390.522 -193.724 -0.13436
1197.36 -80.5785 -115.753 -1.33513
1182.29 -142.814 -158.116 1.79238
868.588 -441.476 -301.466 -0.723642
1395.8 -1322.43 -504.846 -0.305147
863.38 -327.703 -327.239 -0.886916
834.006 181.511 89.484 -0.614616
1096.96 432.773 283.29 -0.257507
1299.09 -1173.89 -512.796 0.962219
1292.06 286.727 122.814 0.719716
1350.98 577.274 314.94 -2.33338
1267.18 -423.358 -284.916 0.0878315
1428.13 347.699 145.052 2.31649
1484.56 -1255.26 -471.193 -0.414415
1015.3 -1226.13 -578.404 1.70787
651.671 66.413 -232.364 0.328733
751.021 -624.23 -470.382 -1.13204
1286.95 -695.088 -388.277 1.01398
1131.92 -1202.47 -537.235 1.37994
1395.86 -860.258 -366.325 0.876242
620.585 -727.016 -617.729 1.3403
1166.01 408.01 239.083 -0.325891
626.318 -53.9446 183.268 -3.40206
1431.1 -365.104 -147.599 -0.78554
1117.17 -470.462 -338.866 0.0336596
937.094 -201.671 -94.8569 -1.47783
1464.42 358.98 147.66 2.53186
1800.85 -987.483 -348.687 0.661129
1134.06 -1044.53 -526.312 0.163114
1463.87 -458.627 -186.957 1.76442
1901.32 -645.62 -224.475 -0.332397
1396.2 -865.693 -369.272 -0.130786
2016.46 -454.723 -203.028 0.0859701
1415.36 782.389 442.317 0.107558
2002.37 83.8506 0.878842 -0.9913
1773.23 -96.2811 -3.20136 -0.323088
1417.62 225.682 190.624 -0.81101
1790.25 106.706 89.4562 -1.47702
1305.93 -182.374 -52.6842 0.803952
1392.73 -476.828 -205.612 1.28116
589.872 -658.492 -602.291 -1.55732
899.028 -1069.37 -602.707 0.456694
1840.74 798.793 398.421 1.36313
898.575 -762.929 -471.931 1.54894
665.832 -475.841 -485.873 1.39042
1323.47 555.449 307.944 -2.73868
1287.05 -558.201 -265.571 -1.27464
948.727 36.1413 124.416 -1.22607
1644.22 -224.401 -147.143 1.18206
1581.81 322.813 219.334 -0.807359
1873.97 -118.688 -14.1699 -0.426316
717.382 216.838 425.746 -4.45499
1008.21 4.5566 -78.6647 1.49697
1891.69 -485.363 -220.024 -1.47337
995.052 -57.7704 37.1512 1.5282
1821.23 173.474 120.901 0.376118
725.54 226.914 450.676 0.245249
1038.28 -140.133 -173.11 -0.712951
765.985 -624.35 -461.275 0.24356
1390.62 -593.386 -329.468 0.510286
1059.35 -1110.15 -561.264 0.013469
1091.68 -849.029 -488.016 0.642927
866.487 -901.393 -574.4 -0.0352765
1170.85 -1061.95 -488.777 0.704609
1098.74 465.591 435.835 -4.23727
840.269 -21.8718 78.4095 -2.87932
1425.66 359.488 267.541 -0.956248
587.995 -582.715 -570.321 -1.74349
1392.12 -1293.77 -515.481 -0.49422
1517.57 428.126 287.913 0.355412
1456.8 -1291.96 -506.199 2.25736
1785.92 597.749 251.846 -0.484044
1317.35 -707.843 -324.184 1.12516
1570.78 -70.8879 11.2953 -0.618366
1085.5 322.608 184.842 0.748941
1178.72 629.762 417.69 1.20109
903.973 -744.973 -463.028 0.343444
1014.61 86.4021 -13.5945 0.777732
602.683 -681.24 -587.772 -0.342723
1112.36 46.0842 -38.7547 -1.23873
1104.59 522.663 473.397 -0.0647016
1669.12 814.895 430.233 -0.853389
1411.77 -1101.67 -442.536 -0.95771
1545.3 582.228 362.373 1.29086
1381.43 -926.479 -435.14 -0.154802
1558.17 572.575 352.504 -0.668308
1863.98 571.968 301.959 -0.471501
1544.4 -1172.88 -437.218 0.582665
1727.25 -352.867 -115.405 2.79667
943.265 -910.434 -517.462 -1.67536
2006.62 -293.434 -87.8926 -1.62341
1754.02 -18.3745 -51.6939 1.50913
648.123 -220.368 -77.1632 1.93963
784.821 80.0767 -22.6444 -0.625014
1217.72 -939.066 -435.908 1.50904
1300.09 568.216 320.606 -0.129142
784.254 143.75 299.221 -0.71014
851.454 -410.473 -282.701 0.748617
1051.07 -624.307 -352.784 0.870749
955.599 -1083.27 -588.089 1.00929
1043.44 -1286.59 -583.761 0.704967
1968.4 -416.919 -138.633 -3.14734
776.535 -343.95 -365.286 0.332229
1661.05 179.199 42.7617 -1.30586
727.973 -761.153 -550.165 0.269423
1310.74 649.109 375.067 0.610772
1048.99 35.3814 110.714 -0.369243
1379.13 -304.741 -118.508 1.05168
997.314 -817.711 -503.137 -3.16401
1115.42 -289.421 -248.828 -0.116238
1020.57 -1027.74 -528.837 -2.2461
1117.78 -1133.18 -549.565 0.186723
1664.25 473.77 283.976 0.0984429
1530.77 -877.978 -348.57 -0.732427
1807.55 412.342 151.525 0.772205
1216.53 683.922 448.069 -0.280433
885.845 436.611 485.778 1.17661
1984.36 321.026 106.053 -1.79875
721.61 274.782 350.285 -2.39752
1022.11 -639.552 -437.516 0.875207
1218.65 -1096.97 -514.648 -0.533982
716.192 -144.633 -243.85 0.612374
1137.82 -1202.63 -536.339 0.656205
1650.32 474.274 285.549 -0.787794
900.547 -566.569 -370.801 -0.00190875
693.547 263.027 5.403 3.71972
1547.78 85.1326 94.5797 -1.54276
922.77 -1105.91 -584.514 -1.14041
1336.39 -75.0879 15.5002 1.88464
1367.16 -1412.76 -531.199 0.859964
1688.67 -443.596 -226.031 -1.07617
1403.33 -827.011 -402.55 -0.224658
1242.15 -424.535 -293.042 2.43023
877.369 -424.846 -377.924 -1.8589
988.794 -390.627 -229.658 0.69769
1618.6 -528.234 -267.849 1.02191
1146.21 32.2879 -49.9823 1.28682
934.413 116.485 15.471 -1.75803
1642.78 591.875 263.366 -0.058821
1237.88 472.232 388.217 -0.59064
706.67 154.202 213.783 -1.55562
1223.33 -349.647 -162.235 0.162542
944.832 255.645 153.026 -1.15021
1383.39 -41.5179 32.8441 0.0624584
797.592 156.428 309.373 0.254121
1678.07 -873.061 -368.561 1.83878
800.462 -187.605 -250.199 -1.65066
1282.33 -335.999 -146.529 0.477696
1045.94 467.245 341.723 -1.19243
1589.24 -432.492 -235.711 -0.00615865
1004.7 -145.593 -38.313 1.29373
1112.42 234.002 102.42 1.605
1791.15 395.587 228.351 0.014721
1775.37 597.933 325.88 -0.0361874
1966.27 -536.07 -178.404 2.22615
1004.84 431.715 462.718 -1.22434
811.611 191.05 346.401 0.0821995
1698.07 118.684 8.26816 3.01757
1981.84 -529.151 -179.51 -1.67575
734.762 -311.94 -356.659 -1.52909
677.474 255.307 -72.3736 -0.133371
1429.66 447.553 208.668 0.939443
1243.88 -477.617 -232.169 -0.718616
798.246 123.865 25.9699 -0.398928
1089.84 397.755 252.931 0.340185
959.64 -92.2079 4.81673 -0.363362
865.538 385.694 371.27 -0.901672
1438.35 -764.784 -377.306 0.486955
1067.62 -611.932 -413.379 0.761257
1585.86 314.656 115.395 -0.538035
1766.2 -753.941 -273.569 -0.281794
1222.5 -1020.31 -460.995 1.43771
2089.19 70.4656 0.653413 -4.38838
1443.69 -942.909 -382.744 2.76783
1260.33 -366.217 -169.728 -2.19219
1275.58 -347.002 -247.2 -1.20819
998.231 -783.529 -446.305 -0.414866
835.287 -626.462 -493.104 1.62462
1178.94 -677.463 -344.339 0.0707822
1893.21 387.501 137.066 -0.113277
804.16 -457.637 -336.736 -0.460334
1461.71 -985.364 -434.449 0.734204
1819.55 -384.174 -129.369 -2.02232
861.064 -1084.73 -603.766 -2.21799
1652.57 -39.502 25.0656 -1.08902
1619.25 -212.898 -57.0715 1.80811
1701.14 -435.743 -156.608 -1.00723
681.372 -239.59 117.938 -4.28561
1544.57 500.694 225.277 -0.874824
725.272 -187.888 -273.955 0.411283
736.341 232.206 203.688 0.431079
1875.39 -389.415 -126.339 0.723064
1167.33 -1025.98 -512.668 -0.134611
811.472 -535.068 -384.704 1.1756
738.514 172.882 76.5634 -1.09003
948.995 -630.518 -392.411 -2.2972
1206.09 576.056 462.246 1.35172
835.137 -313.631 -209.013 1.30928
1234.53 690.647 497.88 -0.247369
1163.19 -701.087 -358.171 0.890152
968.545 -926.824 -545.289 -1.34314
1550.53 -690.917 -276.214 0.0726949
1544.08 -515.451 -205.274 -0.368485
1839.98 -554.233 -249.622 0.359006
929.194 -704.667 -490.746 0.360465
1353.4 211.207 68.9498 -0.0629452
1966.62 149.409 26.5384 0.625097
1264.34 -133.963 -26.5765 -1.98225
1891.2 -296.513 -88.7111 0.165982
682.186 -230.933 -270.286 2.02565
1521.41 -279.783 -93.6765 2.40494
935.868 367.518 454.581 0.562781
1364.76 26.3381 76.0644 0.55352
1014.43 -1.52379 82.9945 -0.113006
1283.56 -373.853 -167.536 0.756267
1525.93 533.708 340.918 -0.031512
698.697 -530.802 -441.196 -1.58085
852.6 -1027.31 -608.264 -0.897946
2004.21 98.2099 5.30477 0.518474
1735.08 87.3458 -3.69754 0.819445
1058.67 270.941 142.079 1.57488
1170.34 631.335 425.289 0.357626
1393.01 414.539 306.469 -1.18482
1559.31 -593.891 -298.315 -0.354867
1817.05 -725.576 -257.302 1.29649
2071.86 127.643 22.0713 -2.49153
1469.23 92.099 -2.18995 -1.01859
1841.11 -670.472 -235.193 1.61546
1646.18 -1104.07 -431.13 -0.682212
1764.12 383.957 140.092 0.130671
1918.83 601.238 311.493 1.39784
819.527 -725.898 -535.816 -0.176992
1765.46 518.503 209.641 0.278037
1443.48 -1238.14 -470.406 2.91173
1852.16 -369.533 -119.243 0.607241
919.377 -556.827 -359.099 -0.628121
1286.04 -454.018 -295.012 0.565886
1496.25 -648.686 -327.859 -0.30754
1633.8 -439.385 -232.276 -0.132527
2073.35 86.6978 9.6871 -6.82844
1042.22 -916.009 -481.756 0.438058
1060.99 266.052 138.929 0.327116
1672.19 453.652 180.84 1.94675
1574.1 -664.336 -319.653 -0.210273
919.841 -106.91 -170.727 1.02315
1856.94 676.355 287.294 3.02873
751.998 -631.195 -524.686 0.629836
655.45 -241.116 35.2382 -3.44975
2022.79 -101.952 -7.83214 0.443722
1562.23 -994.693 -382.454 -1.30111
1855.95 -278.805 -81.2856 0.901899
1798.55 -516.82 -241.987 1.15383
1395.98 -139.331 -22.562 2.45882
1968.48 116.422 11.3644 1.54435
1757.18 -35.2635 24.8363 -0.792708
662.164 -202.246 141.307 -2.29089
2000.57 -94.9347 -70.2756 -2.14334
1948.2 507.414 196.973 -1.59216
625.156 -369.583 -382.696 2.49924
1479.76 788.582 424.701 -0.140231
1769.94 -322.696 -172.979 -0.714323
1353.01 328.646 145.32 -0.707281
908.342 -334.629 -207.707 0.521336
1958.63 76.1559 68.0344 -1.1751
1669.52 365.695 133.079 2.96149
1492.09 -1120.5 -459.385 -1.06098
1925.77 276.306 161.449 0.800154
1120.32 -843.682 -429.962 0.680788
920.359 -345.844 -324.803 0.951548
811.44 341.101 480.682 0.814493
1141.74 -841.98 -471.66 0.461778
894.334 179.331 78.535 -0.741951
1764.74 -447.389 -219.91 -0.164809
1049.14 -720.752 -398.556 2.30768
788.834 -705.55 -493.19 0.627206
1080.15 438.069 431.358 0.0309202
1624.97 -1110.52 -436.22 -0.1943
824.868 350.255 352.113 -1.32657
601.877 -593.718 -540.868 0.492605
1143.66 552.015 473.31 0.284606
959.427 -534.458 -411.824 1.26303
962.688 108.826 6.13636 -0.139119
615.109 -583.712 -562.199 1.53734
1329.35 39.4587 85.4273 -0.786996
1141.15 -1294.07 -557.345 0.221519
1676.29 -981.567 -396.693 0.246053
1350.8 2.98384 62.1829 0.428318
1658.48 -235.752 -66.8407 1.72538
874.613 -325.587 -324.83 0.770056
1273.6 593.206 443.186 -1.19255
1994.23 365.292 123.069 1.51124
1567.56 -464.093 -249.855 -0.798625
2008.46 184.2 41.5058 1.11756
745.913 123.779 -120.917 4.72104
1806.04 80.8284 77.7741 -0.319301
1157.07 -484.7 -334.621 -1.04049
1254.06 -359.796 -163.978 0.294637
939.479 -367.287 -328.812 -1.76907
750.358 144.523 25.3089 1.88157
1667.99 -859.975 -323.74 -2.3187
905.538 -123.418 -19.9867 3.22444
1343.13 -371.87 -158.118 1.47364
946.896 54.0087 -41.6092 0.133128
649.98 -495.323 -444.354 -0.0390467
1370.02 264.628 223.29 -0.126852
1668.48 439.9 174.237 1.5294
1637.5 -484.167 -246.741 -1.52894
1780.68 634.232 271.92 0.206128
2067.31 182.73 45.0065 -2.05732
903.984 -1125.07 -593.173 1.81562
1560.44 -207.578 -57.4935 0.695924
1958.02 185.407 42.3943 0.436459
2044.61 329.544 106.898 1.04018
1916.97 422.908 154.181 -0.492581
1737.37 -237.666 -66.537 0.697464
1654.61 436.916 172.745 2.50339
1955.25 20.8412 -28.6247 1.14289
1357.15 -1037.64 -470.004 1.31482
1880.75 374.562 128.168 2.54369
978.865 454.145 368.943 -0.652301
980.671 -1107.2 -563.711 -0.839924
1841.82 -793.803 -324.668 0.545407
1006.5 -941.351 -504.444 -1.05984
1938.8 -72.472 6.29293 0.807466
1938.22 -239.962 -130.836 0.0527954
1409.16 -699.1 -361.06 -0.718622
1013.66 437.785 326.649 -0.272591
902.982 -675.319 -432.656 -2.26508
1051.2 -1306.84 -583.593 2.61183
1560.32 390.921 261.217 1.34297
1586.46 771.297 435.31 -0.51771
1496.5 12.03 58.3534 -0.755461
1570.02 -635.494 -250.331 1.22197
767.354 -123.522 -27.7542 0.458193
1738.77 43.3477 -23.5183 0.551168
1478.09 661.546 415.09 -0.446505
1386.41 149.547 26.8715 2.50807
1210.79 -218.97 -196.692 1.64969
762.79 289.401 295.438 -1.17799
1630.14 -562.523 -277.438 0.33798
1525.66 -157.41 -126.295 -0.488628
1583.56 -1195.12 -440.56 -2.14554
1706.21 345.084 213.125 -0.94529
957.707 -799.82 -465.972 1.06898
1673.87 536.589 229.803 -1.34337
1625.08 -69.9366 11.4894 -0.116553
1346.5 412.907 316.598 -1.8899
1422.88 -517.25 -218.46 3.08912
1136.2 -710.761 -431.706 1.1955
1245.52 -788.225 -426.659 -0.904511
745.097 -327.48 -251.007 2.69213
1472.84 221.697 179.369 -1.36066
1483.54 -552.759 -231.421 -2.07408
1609.65 -421.647 -156.916 -0.152289
1519.52 382.935 264.469 1.33626
1669.64 575.816 255.019 -3.71796
2004.59 -243.526 -65.0163 1.05188
1077.8 -515.886 -289.878 -1.72205
1893.65 31.3108 -24.7831 0.266113
769.233 -152.744 -67.762 -0.12309
1906.55 390.003 138.109 -0.259517
703.588 57.4023 -251.551 -1.84986
1872.17 392.155 218.507 0.261284
1200.34 679.416 455.31 -1.17041
600.659 -472.922 -465.567 -1.44951
1214.07 -552.413 -351.828 0.735837
1779.55 725.963 324.672 1.42461
1318.18 -209.975 -178.858 3.45013
682.341 -68.5349 256.664 -3.03326
1100.23 -1068.02 -540.74 -0.0429151
1604.22 -124.147 -105.229 -0.0390472
1696.48 766.586 361.294 0.541411
742.366 165.666 377.446 0.194816
1141.24 -555.036 -369.984 0.142332
756.471 -360.816 -381.092 -0.902378
792.858 -345.228 -360.421 0.0816935
1297.54 -371.296 -165.357 -0.175784
1047.78 358.816 230.773 -0.286331
1378.07 15.1075 -47.0284 -1.29724
1459.46 525.982 254.704 -0.889464
1257.86 587.258 345.396 2.4921
999.515 365.098 254.049 0.0196625
842.434 92.3986 -10.1434 0.428581
1656.1 417.451 164.199 0.674707
792.739 -29.0844 -127.237 -0.813332
1710.17 -449.292 -162.113 -1.44883
1254.69 362.839 315.492 1.70142
1173.8 -297.349 -136.687 -0.310849
775.422 -795.791 -576.184 -0.256302
1304.52 -609.84 -353.168 0.306065
985.506 394.248 292.577 -0.114292
645.712 -746.759 -592.748 -2.09388
1279.14 -1056.24 -491.633 0.449958
1240.63 -980.232 -483.917 1.2449
1376.72 774.769 480.864 0.763327
1005.87 -953.107 -542.252 0.574885
922.646 50.4289 147.402 1.78183
1020.23 -412.239 -334.128 -0.222304
1256.85 -49.5014 -96.4405 2.64274
923.369 349.287 447.242 1.06558
1934.95 174.83 37.856 0.209044
1512.34 53.4571 -25.5946 2.03287
1360.8 66.2291 -20.5681 0.791485
1998.63 548.135 214.612 0.76435
1097.06 -127.673 -156.182 -1.42455
1559.56 -718.448 -340.06 0.400962
747.249 -468.86 -368.267 1.09628
1610.13 228.905 166.805 -0.231107
1803.16 359.168 209.183 -0.46849
1756.94 -1051.52 -403.751 -0.947524
1859.41 -459.961 -155.983 -0.122662
1347.08 763.582 455.067 0.252193
1818.14 -129.965 -91.8073 -2.37166
1198.36 676.449 449.276 1.5257
1677.21 -637.851 -238.565 0.780276
1808.55 -384.79 -128.765 -0.779334
1371.31 -1232.09 -483.495 2.53257
1073.76 -154.68 -179.467 1.27249
1828.52 756.599 388.059 0.526776
1623.56 -446.819 -165.159 1.30997
1639.93 548.688 325.128 0.189891
1001.92 536.712 461.281 -0.802317
973.657 189.994 268.432 1.14518
794.29 -472.354 -432.75 0.116051
873.536 6.37163 -86.363 -0.496441
1658.71 -203.445 -135.512 -0.214063
1557.8 266.017 91.6899 -1.53229
1252.62 -15.6009 -72.7862 -0.43497
1639.16 715.514 338.942 -1.12208
1492.9 -1244.21 -468.528 -2.09608
804.763 -15.1289 -113.843 -0.189714
823.535 86.1248 -15.5754 -0.348933
958.281 16.9134 -69.6599 -1.0586
843.553 393.643 437.835 -1.30922
1307.19 -785.218 -412.532 0.66514
923.689 285.402 384.78 0.513168
1402.21 183.017 169.872 1.47041
1761.47 209.913 52.7406 1.86947
1673.89 -715.175 -320.392 -0.247759
938.861 -168.084 -61.0073 1.75076
1636.69 -212.161 -58.9051 -0.61199
909.623 -528.752 -343.632 0.797718
1061.62 -1241.18 -584.629 0.347024
1604.69 -211.839 -59.7189 -0.643836
1382.2 -263.512 -193.142 0.516212
845.497 126.741 31.8303 -4.16803
1710.27 193.768 49.8018 -1.83451
1078.24 -465.704 -256.186 1.8021
831.776 -211.316 -115.538 1.55701
1600.79 668.819 314.843 0.311395
1377.04 -672.083 -359.899 0.418717
638.172 41.3786 -231.192 3.68
1120.15 -1207.78 -541.089 2.21082
1658.63 801.425 393.651 -0.77556
1029.93 -1083.26 -538.414 0.9213
1827.62 44.4953 -18.2037 -1.96958
2050.24 244.495 71.0923 -1.38817
1125.01 -1034.85 -526.179 -0.258796
679.545 -513.782 -498.718 0.338293
1571.62 -105.089 -3.56891 1.96481
1458.95 566.516 371.398 -2.32924
830.026 178.298 316.631 -0.112091
1173.78 182.868 208.692 0.525768
1080.44 213.51 253.63 -0.911668
1336.21 -271.524 -202.983 0.092521
1087.07 -851.38 -488.969 -0.349859
1364.34 119.54 135.246 1.17685
1488.21 -1213.46 -457.675 0.934676
1783.75 -820.304 -338.991 0.922555
1402.86 -834.909 -406.321 1.0626
896.274 -869.399 -521.125 -2.06027
2056.14 -197.964 -52.8596 -4.55972
1508.62 757.36 393.3 -0.904595
1624.04 818.242 439.174 -0.386322
804.082 -74.4083 24.5194 -0.949302
947.847 -179.397 -72.552 -0.0533684
1377.65 -1326.25 -508.359 0.636916
1681.29 -1067.71 -387.916 -0.691726
1232.65 -371.404 -269.155 1.11991
771.288 -704.526 -544.923 -0.972041
1289 -963.428 -465.486 -0.810393
2016.12 486.832 185.201 -1.21005
739.98 238.917 220.379 -2.5841
1401.43 -102.538 -3.16668 0.62337
900.289 -176.059 -73.5614 0.433235
1225.7 -1077.22 -508.428 -0.653935
930.996 -335.032 -313.931 -0.606921
667.735 108.852 223.796 0.864189
1062.26 -520.376 -376.301 0.901542
1108.83 -625.767 -405.584 -1.00054
1929.19 -212.435 -55.5369 -1.74308
1496.74 -793.668 -373.132 -0.854524
1809.05 685.372 298.911 0.379456
931.087 -61.3386 -137.857 2.85031
1368.95 427.802 207.183 0.14134
1205.63 -604.886 -302.192 1.50307
1097.11 -30.448 -96.8705 1.93893
1018.33 -1145.11 -580.887 0.879468
1974.91 -561.58 -189.307 0.676474
913.097 -620.745 -398.381 -0.982006
1063.77 -1267.51 -587.766 -0.13621
1385.06 -1034.85 -427.909 -0.64255
1369.43 771.476 483.327 1.94151
1179.49 277.152 276.233 0.250257
1901.74 631.589 265.335 -2.0469
1487.77 -1117.17 -431.361 -0.0650276
1233.36 -186.018 -59.1664 -0.0370952
780.709 -577.024 -427.23 -0.594809
1277.86 -1014.2 -446.758 -0.576535
736.873 172.792 -1.17498 -4.13829
824.452 296.858 249.3 1.31636
1798.32 658.874 283.983 0.676932
1227.96 -491.41 -322.31 -0.223469
1456.31 583.044 382.301 -0.785453
1282.68 485.017 265.28 0.161389
1567.41 629.252 378.63 -0.046277
765.964 -445.902 -428.694 0.206036
1616.23 -56.3503 19.823 1.0471
1448.81 536.257 260.181 1.64067
835.608 -682.494 -512.306 -1.39
1184.85 -423.695 -210.888 0.904893
1454.49 -103.719 -5.70614 -0.882006
1390.86 -176.638 -147.863 -1.32654
932.115 -685.562 -423.076 0.932961
914.32 -950.906 -541.091 -0.401237
1219.85 532.146 319.742 0.398072
1609.15 -1053.51 -394.026 -1.59374
1855.18 339.315 114.215 0.398765
1542.97 604.438 288.769 -2.02724
1432.61 680.09 358.795 0.354628
1688.08 811.109 427.004 -0.18671
1197.66 383.193 208.879 1.29802
1813.03 -584.473 -262.637 0.714723
897.414 148.265 254.054 1.3456
924.525 110.504 205.631 0.630233
1355.93 642.088 438.368 -2.73757
1744.59 -1029.88 -367.908 0.340961
1209.8 591.823 370.673 0.714762
2007.34 288.795 89.529 -0.262443
1079.33 292.1 319.942 0.429589
1162.69 -1309.17 -555.808 -0.678161
1471.38 215.939 176.823 -0.881668
1908.07 -516.551 -230.607 -0.184251
842.9 -865.307 -573.678 0.81868
1585.67 802.005 445.13 0.0700373
683.309 -552.183 -515.284 -0.412957
1343.87 -712.284 -379.577 -0.485781
1850.95 193.287 46.347 -0.0522872
814.966 -198.921 -257.525 0.683093
1012.95 505.501 406.434 -1.01268
724.607 -221.836 -159.296 -0.947131
579.737 -440.421 -486.879 -1.18569
1310.14 724.786 487.013 -0.897138
1112.83 28.8621 -52.9165 0.374824
1257.11 613.526 368.29 0.591198
1746.97 662.096 289.527 1.61927
1194.81 149.647 30.8681 2.8479
1112.25 115.631 166.408 -1.20778
1440.48 523.242 353.988 -1.99409
886.035 101.133 -0.978192 0.0639251
1072.2 349.921 370.829 1.37273
1030.56 297.847 173.625 1.22901
1836.2 -754.859 -311.457 -1.50115
818.54 -879.696 -555.109 0.282105
1085.68 -893.37 -501.239 -0.521178
1416.17 58.6032 93.2487 1.64154
1441.78 -971.897 -433.644 -0.593906
934.354 -844.891 -494.271 0.0863904
1179.19 -496.762 -336.967 0.938635
1366.1 489.035 247.599 0.79111
1663.45 12.3138 -37.2051 -1.89498
835.918 -263.321 -165.994 -0.065908
1182.52 159.068 42.7816 -1.00034
1706.95 -1046.26 -409.69 0.426873
1159.7 -26.2064 -86.0366 -0.466152
1558.75 -288.682 -98.7391 -0.157605
1254.59 710.002 451.013 -0.0662623
1186.41 -375.093 -280.199 1.36157
1729.47 16.5123 -33.3939 -1.7467
1416.86 -828.921 -351.244 0.414141
664.23 -608.857 -511.098 -1.95519
1218.03 609.204 378.806 2.3712
1429.86 -677.537 -289.978 0.723437
1845.85 741.408 380.231 0.900694
1481.23 377.824 159.129 0.760873
1692.35 -444.599 -226.599 -0.479545
1329.83 -343.645 -145.91 0.0428205
804.14 87.0551 218.031 -1.34121
744.106 -881.98 -591.684 -0.580076
1767.97 -190.861 -46.0854 -0.321883
1409.33 -138.996 -25.8444 -0.717164
686.691 -221.25 -269.242 -0.184455
1738.8 -108.215 -7.2352 0.770803
1834.94 207.46 52.5337 0.320982
1279.01 -60.0534 -97.9955 0.215591
817.678 153.9 55.1244 2.03878
1457.77 409.422 183.174 -1.0124
2064.2 295.99 96.4673 -3.33444
1577.7 391.895 255.606 -1.33475
794.6 -725.007 -542.704 -1.91593
717.283 251.106 -61.8017 1.47497
843.305 374.394 377.327 -0.525012
666.596 -242.343 54.9367 5.42613
1699.4 286.464 184.118 -1.67002
1752.75 360.509 215.781 -0.204428
978.838 -1077.23 -556.094 -0.775808
744.009 -560.054 -494.073 -0.878514
1972.1 545.774 212.691 1.66238
1959.63 -77.4709 3.01411 0.0735407
1157.32 57.766 -32.1183 1.39904
873.347 -946.276 -582.26 -1.25684
647.995 -376.632 -353.226 -1.9632
997.256 -55.7968 37.0553 0.226883
1658.99 772.058 370.909 0.270116
679.086 213.266 151.092 -4.1358
1620.15 -583.097 -284.807 -0.723152
851.259 58.6999 173.044 1.62786
847.975 -973.486 -574.939 -0.0594089
1657 665.15 306.394 -1.8339
2024.16 -310.736 -152.813 0.425122
1278.44 -1238.19 -506.9 1.67827
1099.67 628.817 487.609 -0.838546
1215.93 134.276 167.203 2.20223
1520.35 -869.829 -349.302 -2.36586
1262.38 251.075 102.564 -0.43645
1113.78 -454.339 -242.506 0.991298
626.048 -448.493 -488.816 1.89535
936.728 161.689 59.4045 -2.70126
1811.51 311.608 185.524 -0.730744
1079.78 -231.603 -221.582 -1.33341
1427.95 -447.903 -186.8 1.31614
1120.18 -626.458 -405.214 1.18838
788.507 312.275 306.593 1.7573
1446.96 282.037 219.446 -0.34735
1834.07 -327.594 -169.017 -1.13805
2066.56 -58.5794 6.64293 -2.12733
1905.79 728.099 320.769 -0.582848
834.133 -1028.09 -617.067 1.15395
1224.82 -778.152 -429.414 -0.198766
1678.36 -1054.28 -384.715 -1.28031
1846.79 607.493 320.884 0.0822366
2058.98 85.8571 67.3926 -2.42072
540.826 -529.529 -553.848 -0.664557
1150.95 417.857 253.438 -1.60685
1502.08 470.844 212.655 0.121394
1505.98 308.874 113.603 3.21873
1267.99 222.83 82.6592 -0.579825
1506.65 606.609 382.208 0.133921
1051.61 -410.211 -327.886 1.93844
1368.55 671.851 372.939 -0.252109
1960.7 -9.50192 -39.2598 -0.416747
1014.51 -853.189 -467.743 0.655569
1153.13 460.425 284.471 1.38164
1771.09 -691.202 -249.634 0.428866
1584.41 -790.141 -357.858 0.543946
949.22 -750.536 -448.368 0.336667
1229.26 -995.18 -453.305 -0.421042
935.572 -981.925 -572.857 1.59063
710.603 -297.498 -357.879 0.271704
1090.57 28.6692 -52.6458 -0.909501
841.848 -746.301 -533.482 -1.61172
751.561 202.52 142.101 0.24145
1363.47 120.851 135.849 0.904204
1493.75 -1066.91 -413.884 1.2774
838.236 362.723 359.073 -0.622771
2035.94 -401.64 -130.807 -2.39852
892.555 401.994 373.051 -2.30555
880.724 184.667 85.9069 -0.656538
926.926 -217.503 -241.51 -1.76048
736.234 -238.102 -304.613 -1.72959
808.95 204.127 125.964 -1.8162
1963.46 -207.528 -51.5924 -0.0537846
1689.91 -185.364 -123.423 -2.00642
995.534 459.737 364.551 -1.14514
797.544 335.625 349.812 1.69831
777.792 219.964 156.073 0.549605
1281.46 246.434 229.998 0.147375
1446.96 471.065 326.142 -0.297135
1574.82 -325.555 -195.925 0.607122
1590.66 393.273 255.883 0.230652
1002.43 481.562 383.199 0.363838
2034.56 406.975 147.296 -2.50755
1704.83 -309.076 -101.642 -1.16404
1504.16 678.49 414.694 -1.75837
1675.12 812.418 428.646 -1.09606
1391.24 -775.18 -389.07 -0.716916
1716.54 -487.084 -174.889 0.740194
1629.54 785.553 434.372 2.30151
1695.12 -113.181 -95.352 0.892688
2012.55 -116.734 -13.9476 0.330186
1346.61 -523.791 -311.748 0.521936
1791.34 -865.842 -348.928 -1.3003
806.469 -136.819 -213.345 -0.00225103
2094.27 26.5806 -18.415 -3.18336
1012.89 306.61 188.757 -0.207861
1833.71 -451.192 -152.559 0.989826
1935.26 360.545 121.474 1.4716
938.422 -448.877 -282.39 1.10425
1564.21 -471.741 -184.481 -1.01258
713.278 14.0154 -260.817 -1.40286
1799.37 461.826 260.208 1.28199
1453.59 259.893 90.4645 1.82167
1928.65 716.804 362.517 3.02668
1145.62 -744.94 -382.906 0.224453
1090.42 -1324.16 -591.037 1.43612
1748.98 457.777 264.064 0.619324
1372.81 -484.14 -214.133 -0.559838
1775.65 673.105 295.611 -0.517521
1664.5 65.1458 77.455 -0.634587
1667.75 -420.189 -150.553 0.744758
1985.3 427.821 223.137 -1.88588
773.356 -1017.97 -633.732 -1.69816
1724.95 -1095.46 -390.62 0.246456
1404.04 -271.223 -100.126 -0.576824
1803.85 -958.406 -373.679 -1.10633
1371.06 -1330.72 -510.261 1.13437
947.083 19.5568 -69.0827 -0.509173
1580.99 -1236.44 -472.972 0.738786
1106.9 324.465 182.079 0.432353
1513.28 -1301.76 -495.529 -1.0007
743.323 122.223 301.048 -0.189266
1310.69 -128.296 -19.4836 0.387832
1468.6 -243.453 -173.27 0.779377
1442.2 205.148 175.181 -0.448578
948.403 -1237.72 -617.351 0.877306
1369.59 -267.669 -198.817 2.29337
972.635 347.427 415.571 0.268694
1262.8 -1025.09 -455.086 -1.60557
1281.66 349.296 167.658 0.921687
1850.45 -632.883 -274.17 0.326905
1531.46 -494.588 -269.777 2.06589
657.839 -26.4855 245.593 -2.11469
1713.37 328.509 113.698 0.887652
912.663 -369.675 -232.803 1.17817
689.279 -911.717 -642.832 -0.619542
1556.13 -79.0251 -88.8099 1.13818
1404.38 781.142 444.952 0.720847
1736.1 -1076.91 -412.727 -0.878569
876.907 -150.03 -208.589 0.383725
878.492 -902.729 -540.141 -1.59851
1002.81 -674.61 -454.991 -0.756659
1471.29 665.503 339.291 0.247203
1189.34 -968.497 -492.864 -0.116363
1006.13 -820.363 -507.361 2.50117
778.728 -411.956 -403.96 -0.730342
1022.31 -1013.88 -552.36 0.875707
1337.12 -413.328 -183.958 -1.18855
1902.01 690.135 351.058 -0.0563334
803.211 -617.25 -498.92 0.124777
934.59 -820.045 -529.368 1.58883
1218.86 -1191.36 -512.395 -0.599046
1563.53 -1154.9 -455.322 -0.921214
1006.9 -955.047 -509.131 -1.22493
1297.34 -171.023 -158.388 0.870609
1176.1 -1195.41 -544.538 -1.22474
955.273 427.909 352.892 -0.709583
1658.81 -768.86 -340.781 1.49782
1517.11 -162.167 -36.9541 -0.850298
1497.27 -110.672 -107.798 0.755544
922.421 -847.416 -500.789 -0.735886
1799.76 -208.318 -51.8834 1.06545
1687.49 759.942 412.26 0.570983
1912.76 57.5173 -11.4684 -1.3782
1783.25 466.323 264.081 1.03362
1005.84 -114.659 -160.815 -0.874215
839.434 297.334 452.902 -0.23065
978.9 484.09 408.251 -0.685884
1771.39 -594.02 -269.124 -0.361649
1137.44 -365.22 -281.887 -1.70627
1073.8 343.161 361.48 -1.07423
972.221 450.258 366.556 0.735981
945.152 -49.7493 44.0681 -0.548304
1052.82 -809.613 -487.181 0.225882
1720.14 -523.225 -195.847 -5.34275
805.607 19.5727 139.488 0.951856
1881.84 538.813 213.098 0.479559
705.361 -205.543 -294.194 0.97085
1213.46 193.537 208.344 0.636274
1687.3 524.9 221.018 -0.556079
1811.01 617.737 262.194 -1.52689
1578.57 132.049 120.295 1.04786
1464.01 270.385 211.135 0.762902
608.378 -628.829 -558.487 -1.45056
982.245 -340.494 -196.094 0.0596594
713.478 -719.218 -575.121 0.846695
701.683 -120.402 -226.195 -2.29214
723.618 -793.728 -569.889 -2.46978
892.923 -934.717 -541.334 2.08131
601.116 -602.235 -570.598 -3.78686
1756.9 484.718 192.529 0.152155
786.44 284.717 469.442 -0.808727
1084.38 -831.048 -485.455 1.26444
1074.84 412.483 416.405 0.635481
1063.66 -698.302 -447.015 0.468245
1213.91 -837.425 -400.287 1.62312
1480.44 -543.097 -224.097 1.10925
1048.82 -115.666 -154.936 -1.39203
724.317 -282.519 -340.935 -1.10843
2078.89 -224.019 -59.0921 -0.508547
1325.25 -1288.48 -511.173 -0.606303
1759.34 -794.126 -289.623 -1.37501
680.098 -180.579 -192.215 -5.56007
903.228 -1030.03 -593.35 0.653927
853.26 382.354 490.036 -0.746203
1202.69 532.843 326.17 0.801861
1274.8 536.961 304.649 0.641248
790.699 132.805 36.709 -0.175582
871.778 -1111.06 -619.282 0.0574828
1333.22 497.116 260.712 0.56852
1616.46 -1091.82 -405.627 -2.44411
1164.34 -275.039 -231.672 -0.603062
1393.47 -548.662 -310.683 -0.96911
1273 -722.388 -399.553 -0.116836
1767.13 -81.5386 -79.6661 2.61596
1408.56 -614.374 -331.398 -1.4209
1276.57 -158.001 -153.943 0.88628
992.607 -1026.84 -563.02 -0.394875
835.431 385.834 429.705 -0.631767
1565.22 -100.588 -3.66795 -0.219384
1995.73 -593.008 -199.409 1.49746
599.562 -639.86 -570.314 -1.24909
1234.79 418.151 356.773 0.686047
1701.66 -32.9674 26.8488 -1.23349
1872.01 -773.208 -314.584 -0.522648
1908.28 504.958 194.029 0.911303
618.721 60.3872 160.625 1.27921
1123.49 -1008.09 -486.046 1.0734
1189.68 -672.345 -402.622 -0.0537032
1128.19 263.173 277.047 -2.50148
1572.4 -360.381 -209.499 -0.196463
963.58 -974.386 -530.275 -0.577806
1233.83 -617.703 -302.43 1.03946
1865.85 -240.938 -67.2692 -1.02859
1280.42 -992.894 -475.493 -0.296029
1018.9 -601.87 -349.587 1.75311
1751.38 465.723 182.994 0.112012
1007.56 -827.12 -505.956 -0.25979
1125.47 -1170.63 -554.274 -0.202523
1577.85 183.754 147.439 0.542981
746.831 -69.7805 -173.524 -1.40312
909.679 -772.445 -469.432 3.58108
1660.81 -1018.44 -373.105 1.1356
1743.27 150.748 27.6201 -0.663492
839.241 -429.043 -392.803 -1.20806
2093.02 -88.2142 -0.440903 3.07392
1080.52 -527.314 -292.945 0.585992
1829.95 -680.747 -288.92 -1.92732
1033.66 -412.883 -329.277 -1.83703
1373.96 -68.7347 17.1795 0.556119
1935.49 200.953 126.963 1.00334
976.251 504.673 441.142 -0.514834
1361.29 -1285.86 -520.376 -0.108192
883.979 170.955 70.4526 -0.519255
1514.12 655.777 324.77 -0.904245
803.058 -1003.6 -621.105 -0.562236
1135.02 -113.927 -145.419 0.739503
1495.65 547.283 259.258 0.723377
1864.03 465.797 178.161 -1.22213
1027.22 -1266.51 -598.993 1.06828
1399.66 64.3767 -22.1166 1.92933
1219.89 477.521 399.475 0.570727
970.007 264.23 339.557 0.23616
1717.08 -321.982 -180.757 2.21381
1048.34 -644.027 -363.724 0.768403
1726.4 -269.315 -80.859 0.851554
1969.35 571.897 230.017 -1.39427
1130.93 387.234 231.763 -0.428382
1553.27 -1010.54 -387.251 0.276388
1838.76 -311.919 -96.0409 0.475864
1331.24 -832.927 -372.661 -1.03552
1607.49 -784.414 -302.865 0.0532544
739.575 101.957 -144.579 -0.559668
1240.23 96.2143 -3.11494 0.282466
1607.17 740.026 357.761 0.83021
832.592 -227.909 -135.761 -1.56062
1163.86 91.7457 142.14 0.894448
1619.05 -511.471 -261.123 0.364881
1683.15 194.47 48.1718 0.324239
1607.53 754.097 370.373 -1.94099
1813.96 24.4179 50.0214 -1.48544
1019.05 -681.416 -454.701 1.10977
992.949 115.774 193.521 0.838732
1134.8 -108.36 -139.832 -1.09936
2069.49 -55.535 11.3242 1.0814
572.068 -577.172 -578.109 0.54941
1700.98 -133.914 -104.954 1.828
668.445 -513.459 -503.612 0.645406
1499.36 790.728 420.398 -0.0988512
638.937 -207.131 107.876 -9.13241
774.443 -793.06 -541.488 -0.16742
1362.38 -520.603 -233.12 -0.2985
919.003 -126.51 -184.372 0.616463
869.395 -386.332 -360.807 -0.254051
1904.9 -133.706 -91.4939 -0.0886517
920.27 -1113.35 -585.707 0.377094
1399.12 -70.0365 -94.6593 0.757523
1952.3 -602.644 -206.942 -0.87189
739.684 291.82 342.482 0.606169
1309.22 513.626 278.028 0.708838
